ply
format ascii 1.0
element vertex 1207
property float x
property float y
property float z
property uchar red
property uchar green
property uchar blue
end_header
-0.633035 0.587491 0.222036 161 125 102
0.544778 -0.197494 -0.032337 13 10 8
-0.439246 1.121434 0.101196 80 66 53
0.039393 0.254465 -0.437265 32 29 29
-0.556612 -0.393016 0.208386 238 194 153
0.654711 -0.227793 -0.256665 19 14 9
0.730129 -0.144252 -0.479290 223 174 135
0.566575 -0.183384 -0.069628 14 11 8
-0.455265 -0.419611 0.207637 235 195 151
0.431588 -0.609054 0.134684 13 11 12
-0.085011 0.058980 -0.074633 235 188 145
0.112010 0.050912 -0.100046 13 10 7
-0.279444 -1.013041 0.162138 201 151 114
-0.304041 0.998497 -0.041482 95 74 57
-0.518721 0.496126 0.252650 178 128 103
-0.349328 0.270842 0.037498 190 146 111
-0.406697 0.058915 -0.079616 198 147 106
-0.433460 0.051647 -0.105854 210 157 111
-0.395579 0.660301 0.340605 150 112 85
-0.345004 0.299544 0.066784 155 114 84
-0.322375 -0.709098 0.204381 217 176 140
0.073182 0.001440 -0.051473 13 9 6
-0.416310 -0.658170 0.217445 221 177 139
-0.484982 -0.802982 0.163593 160 119 87
-0.198339 0.840593 0.190514 226 186 161
-0.346290 0.772350 0.372341 242 198 173
-0.167991 -0.608982 0.200202 9 6 5
-0.224083 0.223208 0.013119 192 153 118
0.191114 -0.239135 0.078973 13 11 9
-0.621707 0.694015 0.321576 174 136 113
-0.191799 0.808632 0.153130 211 167 136
0.528574 -0.123611 -0.113765 14 11 8
-0.719198 0.738628 0.268320 104 79 57
0.169114 -0.503079 0.267793 13 10 9
0.001515 0.256246 -0.353011 229 182 140
-0.551396 -0.244982 0.068177 238 187 151
0.053990 -0.675471 0.292173 14 13 13
0.185323 -0.462206 0.237943 12 10 8
0.312525 -0.156955 0.003937 13 11 9
0.388656 -0.662968 0.167485 11 10 9
-0.302013 0.010594 -0.029001 206 162 124
-0.423029 -0.883497 0.157572 163 125 92
-0.219836 0.570137 0.364400 213 166 146
-0.139052 -0.475307 0.233769 11 8 6
0.405813 0.200373 -0.365763 241 202 161
-0.789785 0.720564 0.165558 67 48 35
-0.749099 0.498331 0.069293 207 134 108
-0.278200 0.971700 0.001410 128 98 77
-0.571330 -0.718408 0.139388 162 121 86
0.303267 -0.487915 0.204147 16 14 14
0.584382 -0.038292 -0.357942 218 172 129
-0.543451 0.475884 0.187450 182 134 110
-0.656810 0.557931 0.185218 114 80 61
0.084248 -0.110819 0.016317 14 11 10
-0.478718 -0.182286 0.021209 7 6 4
0.554658 0.212707 -0.567993 198 155 112
0.475240 -0.045498 -0.158173 13 11 9
-0.185104 0.595858 0.240495 218 166 144
0.134293 0.236823 -0.361882 12 11 8
-0.189968 0.771693 -0.010691 200 152 120
0.401476 -0.524993 0.154866 22 20 20
0.574695 -0.246289 0.000401 14 13 11
0.362109 -0.239162 0.056863 14 11 10
0.696009 -0.595760 -0.080396 9 8 6
-0.470862 -0.544237 0.219988 226 183 142
-0.103432 0.332185 -0.114714 233 193 148
0.513411 -0.573466 0.084318 12 12 11
0.479924 -0.202866 0.002799 14 10 10
-0.123313 0.646664 0.157684 235 184 155
-0.571047 -0.607277 0.186944 182 135 100
0.721171 -0.330317 -0.353784 129 97 74
-0.467391 -0.644263 0.217511 217 172 131
0.612431 -0.496737 0.034464 16 14 13
-0.172575 0.328017 0.010691 127 95 72
0.117677 -0.183482 0.055176 11 9 7
-0.261153 0.902760 -0.085128 108 85 67
0.104010 -0.420932 0.221499 10 8 7
0.420027 -0.495491 0.142864 17 15 15
-0.257101 -0.879880 0.174373 214 169 135
-0.190106 0.740993 -0.163152 240 175 153
0.791688 -0.435448 -0.366434 156 121 99
-0.258530 -0.909484 0.173248 216 169 134
0.291409 -0.516192 0.224824 14 13 13
-0.309145 0.639648 0.317875 198 146 120
-0.261667 0.005412 -0.018438 221 177 137
-0.141974 0.451101 -0.190807 203 158 117
-0.454585 -0.148589 -0.006616 7 6 3
-0.187133 0.392380 0.237155 217 169 144
0.219529 -0.053579 -0.051021 12 11 8
-0.407902 -0.928257 0.144602 153 114 83
0.018465 -0.180465 0.071596 12 11 8
0.582887 -0.127287 -0.254644 21 16 14
0.734262 -0.172541 -0.463196 222 174 134
0.191300 0.015737 -0.098159 12 10 7
-0.536897 -0.191318 -0.007349 22 16 18
-0.395910 1.045000 0.257674 151 110 88
-0.223455 0.879414 0.207137 229 188 163
0.601107 -0.365845 0.048786 22 16 18
-0.380119 0.345866 0.179695 190 146 125
0.345531 -0.676877 0.199580 12 8 11
0.594260 -0.186226 -0.098861 13 10 7
-0.410127 -0.121310 0.004633 7 4 3
0.261598 -0.166212 0.015792 13 11 9
-0.328022 1.040293 0.205890 215 165 140
0.031869 -0.471657 0.251420 12 9 8
-0.052839 -0.730099 0.215781 6 5 3
-0.499397 0.343769 0.028201 193 143 111
0.538073 -0.457875 0.084696 22 20 21
-0.168456 0.694491 -0.142874 238 180 150
0.255144 -0.290063 0.104160 13 10 9
0.216169 -0.121538 -0.007502 12 10 8
0.658144 -0.079767 -0.391190 225 181 139
0.584636 0.124517 -0.460870 230 188 143
-0.109799 0.569126 0.158727 228 184 157
-0.592649 -0.357850 0.174610 233 186 146
-0.078016 0.207823 -0.100407 229 190 147
-0.167765 0.243461 -0.008376 211 174 137
-0.091529 -0.459308 0.236629 14 10 9
0.635357 -0.214192 -0.120918 12 10 9
0.057910 -0.477971 0.256660 14 10 9
-0.702161 0.503944 0.094842 225 172 147
-0.635754 0.631969 0.257137 182 146 120
0.044632 -0.002053 -0.036022 16 13 9
-0.286296 0.999868 0.074393 138 100 77
0.145806 0.006188 -0.077798 11 8 6
-0.133117 0.480662 -0.054832 167 135 106
-0.136865 0.712232 0.075752 201 153 120
0.733334 -0.213770 -0.430186 221 172 133
-0.320863 -0.947847 0.167281 199 152 116
0.773821 -0.484467 -0.372493 40 35 26
0.259215 0.309452 -0.468650 229 183 145
0.241138 0.186926 -0.295012 9 7 4
0.471245 -0.433806 0.113751 19 16 16
-0.464254 0.863125 0.386442 246 203 175
0.160978 -0.775072 0.253644 22 16 16
-0.529007 -0.159411 -0.071848 13 12 10
-0.136977 0.449254 -0.118913 222 177 138
-0.422501 0.650566 0.352198 109 66 55
0.314283 0.222717 -0.362436 238 196 156
-0.374466 -0.149207 0.040738 6 5 3
-0.064890 -0.113685 0.054412 14 11 9
-0.129005 -0.184215 0.096019 9 8 6
-0.600611 0.472022 0.122423 224 180 153
0.538354 0.233012 -0.518276 211 167 125
-0.101640 -0.222031 0.114994 9 8 6
0.771457 -0.251419 -0.452325 222 171 132
0.468723 -0.675259 0.116732 11 10 8
-0.347509 -0.043235 -0.029296 227 180 138
-0.766996 0.829490 0.248198 84 66 44
-0.414079 1.072463 0.225860 93 74 54
-0.554496 0.504637 0.222125 182 132 107
-0.186356 0.707730 -0.114221 241 191 159
-0.393819 1.103571 -0.029948 94 76 60
-0.096107 -0.507436 0.244487 13 10 8
-0.457444 0.521040 0.311810 217 162 134
-0.412523 -0.099047 -0.008091 11 7 4
-0.659590 0.671491 0.279226 150 118 97
-0.182213 0.745368 -0.198032 233 170 144
-0.312047 0.872398 0.326507 246 199 176
-0.330149 -0.409961 0.193659 238 197 153
-0.460043 1.001377 0.321225 208 162 136
-0.578233 -0.313179 0.140348 237 186 148
0.312182 -0.107055 -0.031023 14 11 9
-0.398621 0.948351 0.336511 245 198 170
0.850251 -0.472450 -0.399319 202 155 128
-0.176836 0.553077 0.266964 229 179 154
-0.465624 -0.846604 0.148112 157 117 86
0.137314 -0.109642 0.003702 14 12 9
0.618889 0.092582 -0.481204 227 184 139
-0.236141 0.808018 -0.137489 223 172 151
0.173024 -0.734891 0.272173 18 14 13
-0.247252 0.450896 0.276980 159 102 89
0.669288 -0.276306 -0.340538 32 29 22
-0.126771 0.399191 -0.218759 202 157 116
0.284059 0.098768 -0.203603 11 9 6
0.320154 -0.416572 0.158789 13 10 8
-0.125941 -0.138451 0.075475 11 9 7
0.819156 -0.321167 -0.447968 223 170 134
-0.062204 0.287928 -0.211102 210 165 123
-0.393191 -0.542617 0.214055 229 186 145
0.677264 -0.126705 -0.412022 225 178 138
0.423359 0.218802 -0.378833 242 203 162
-0.341433 0.340161 0.189263 185 142 122
-0.571444 0.933039 0.363327 151 107 83
-0.379096 0.372784 0.208831 199 156 133
-0.063759 -0.315231 0.168578 10 8 6
0.442521 -0.262428 0.059003 15 11 10
-0.526226 -0.130422 -0.092054 15 11 10
0.574696 -0.742204 0.053291 17 13 14
0.561453 0.208288 -0.520114 216 170 127
-0.527674 -0.747323 0.164676 161 118 85
-0.249169 0.923359 0.203738 234 193 163
0.103284 -0.287531 0.125075 12 10 9
-0.129844 0.236750 -0.044922 232 190 153
0.105273 0.019552 -0.075121 16 11 8
-0.452065 -0.714221 0.209341 205 160 122
-0.157694 -0.881594 0.140707 202 158 129
-0.163310 -0.262496 0.139598 10 9 7
-0.482635 -0.169363 -0.005811 9 8 5
-0.200682 -0.029663 -0.001314 237 191 150
-0.325985 0.226537 0.023329 189 149 114
0.431388 0.312453 -0.474631 229 185 144
0.347997 -0.262984 0.073280 12 10 8
-0.007942 0.074363 -0.102379 242 192 151
-0.342135 1.072516 0.117441 173 133 107
-0.510811 0.872110 0.386042 239 192 164
-0.207679 -0.156120 0.083122 10 8 7
-0.618191 0.764958 0.355770 200 159 133
0.834053 -0.419787 -0.394014 213 164 132
-0.021469 0.012783 -0.057882 240 189 146
-0.509285 -0.384628 0.207694 241 200 160
0.651704 -0.341471 -0.004033 19 16 14
-0.206289 -0.207868 0.106307 11 9 8
-0.291906 0.978233 -0.051968 104 81 62
-0.293459 -0.153355 0.069946 9 7 6
-0.353562 0.602365 0.312397 231 182 154
-0.041656 0.027944 -0.073515 243 195 152
-0.307509 1.020168 0.168566 225 186 159
0.263942 -0.057273 -0.056164 12 10 8
0.447606 -0.399024 0.118659 16 13 13
-0.185157 -0.767145 0.157812 188 148 114
-0.427829 -0.339944 0.166356 238 198 155
-0.224898 0.882750 0.109420 219 177 148
0.777354 -0.212230 -0.494459 220 169 130
0.325086 0.107917 -0.229640 11 9 6
-0.564153 0.595291 0.285259 202 163 137
-0.278773 -0.396387 0.203263 16 13 10
0.133001 -0.225569 0.079517 11 9 7
0.010006 0.194274 -0.226797 219 174 133
-0.580197 0.394010 0.080580 167 109 89
-0.399388 1.000500 0.297242 235 187 158
0.002919 -0.955833 0.089465 36 29 19
-0.462331 -0.764724 0.192643 188 145 114
-0.244236 0.327881 0.202418 186 141 120
-0.526436 -0.483950 0.221847 222 180 139
-0.128601 0.484987 0.195906 221 162 145
-0.547266 0.787872 0.385274 224 180 155
-0.139604 0.429679 0.219376 217 166 141
0.324195 -0.634420 0.226657 22 18 20
-0.129294 -0.356212 0.195379 13 10 8
0.531825 0.224785 -0.477041 224 179 138
0.544287 -0.651423 0.064346 11 10 8
0.602170 0.078821 -0.450332 232 189 145
0.731747 -0.069870 -0.536090 214 165 124
0.220574 0.229272 -0.351046 18 16 14
0.317409 0.284405 -0.421947 232 185 143
0.638404 -0.199254 -0.170143 15 11 9
0.153686 0.033643 -0.100633 12 10 7
0.536328 -0.046660 -0.289850 23 19 17
-0.236010 0.897786 0.067142 205 162 132
-0.168122 0.740534 0.016496 192 149 121
-0.309264 0.932345 0.287325 237 189 161
-0.383781 0.961832 0.320494 240 193 165
-0.287459 0.954565 -0.096103 72 53 37
-0.506138 0.436319 0.188665 191 145 121
-0.406594 0.470297 0.290417 203 160 135
0.511927 -0.326304 0.077550 17 12 11
0.432101 -0.035723 -0.136199 11 10 7
0.323114 -0.039695 -0.084665 10 9 7
0.431732 0.076976 -0.266213 228 183 139
0.651174 0.009080 -0.467171 227 183 140
-0.037156 -0.980008 0.145527 172 134 110
0.660386 -0.593435 -0.043560 12 10 9
-0.275102 -0.452176 0.215252 18 11 6
-0.502535 0.670360 0.380455 128 92 71
0.653580 -0.526753 -0.025768 11 9 10
0.324208 -0.073492 -0.056435 13 11 9
0.552407 -0.356353 0.072974 21 18 17
0.188684 0.146673 -0.228696 10 9 6
0.345682 0.332526 -0.536119 216 169 131
0.420351 -0.324190 0.094765 12 10 9
-0.517270 1.131412 0.113380 110 88 66
-0.188481 0.721365 -0.066232 212 166 136
0.622952 0.046038 -0.454657 228 185 142
0.061695 -0.812085 0.213239 9 5 5
0.140100 -0.736395 0.276966 19 17 16
-0.378214 -0.215707 0.090924 9 8 6
-0.145039 0.687913 0.175250 234 178 148
0.436210 0.045970 -0.223982 13 10 7
0.123204 -0.816206 0.224331 6 4 4
0.424785 -0.411154 0.128123 16 14 14
0.771881 -0.457297 -0.369426 77 61 49
0.127709 -0.016720 -0.056570 13 11 8
0.157801 -0.162817 0.033348 11 10 8
-0.421751 0.359156 0.173990 187 142 120
0.656678 -0.134977 -0.382117 220 174 136
-0.044356 0.157012 -0.124027 227 186 145
-0.444464 0.958859 0.344789 243 194 167
-0.264561 0.288698 0.046061 153 118 92
0.686230 -0.627959 -0.063504 10 8 6
-0.090257 0.442852 0.151195 232 185 157
0.804362 -0.227469 -0.517827 221 166 126
0.510945 -0.614279 0.086160 12 10 11
-0.786734 1.011403 0.116032 86 65 45
-0.290862 0.941455 0.256102 235 190 159
-0.440392 -0.948319 0.102019 145 106 75
0.311341 0.141076 -0.266641 14 13 9
0.328459 -0.384579 0.141280 13 11 9
-0.227401 0.644834 0.322184 230 181 156
-0.212397 0.677995 0.236766 245 198 172
0.101184 -0.944460 0.141389 64 94 57
0.555957 -0.048324 -0.327630 178 131 90
0.240462 -0.820551 0.195447 24 18 18
0.615439 -0.327109 0.025370 20 17 18
0.096798 -0.246121 0.098734 11 9 8
0.649947 0.061973 -0.500935 222 178 134
-0.384864 0.150932 -0.028333 177 132 95
0.085398 0.223877 -0.323454 22 17 15
0.124903 0.134344 -0.184504 13 10 6
0.583226 -0.088196 -0.343212 186 147 105
0.016623 -0.502397 0.263372 13 9 8
0.007797 -0.131307 0.045684 13 10 8
-0.145999 0.539031 0.230343 232 189 162
-0.694542 0.815338 0.316980 143 108 81
0.515981 0.261130 -0.501821 215 171 129
-0.611969 -0.302341 0.105069 228 175 141
-0.153986 0.374649 0.222922 237 184 159
0.259072 0.285233 -0.428431 232 185 145
-0.003288 -0.546461 0.272814 13 10 9
0.741741 -0.428754 -0.222236 21 13 11
0.071521 -0.326525 0.157822 11 9 7
-0.595420 0.775819 0.369846 214 173 145
-0.031443 -0.032689 -0.001799 227 184 155
0.515221 0.083658 -0.368212 235 191 146
-0.430450 -0.411082 0.197109 237 196 152
-0.007776 -0.320934 0.165851 11 8 7
0.834151 -0.235195 -0.557180 218 162 123
-0.378561 0.809759 0.376723 244 200 174
-0.385878 0.635801 0.327023 176 137 123
0.083428 -0.067755 -0.011845 12 10 7
0.188110 0.172273 -0.262413 9 7 4
0.485763 -0.234939 0.030849 14 11 9
-0.279920 0.949363 0.230967 234 190 161
-0.111068 -0.532118 0.238912 15 11 10
0.633373 -0.003035 -0.439418 227 184 141
0.589519 -0.394268 0.061019 24 21 22
-0.396657 -0.063848 -0.035613 223 175 135
0.317886 -0.801696 0.182419 9 8 6
0.432579 0.282063 -0.426058 238 196 155
-0.193025 0.303588 0.181312 147 105 84
0.393935 -0.280255 0.076420 15 12 10
-0.610425 0.850692 0.367990 201 155 127
-0.578666 1.034058 0.272103 38 22 9
-0.298957 1.007355 -0.013585 93 68 48
0.159606 -0.689730 0.290914 15 15 14
0.699827 -0.357408 -0.355723 73 67 60
-0.594315 -0.261203 0.056130 228 176 139
0.730494 -0.381414 -0.240195 29 21 19
-0.195973 -0.538991 0.214944 12 8 6
-0.278155 0.706749 0.289310 219 172 142
-0.172314 0.282250 0.002007 176 141 112
0.426234 -0.202471 0.017949 14 11 9
0.749885 -0.200621 -0.466016 221 171 133
0.738769 -0.432987 -0.293863 37 29 27
-0.349521 1.026472 -0.113991 65 53 40
-0.224365 0.860374 0.028459 209 168 137
-0.079767 0.278694 -0.124350 229 189 148
0.174419 -0.575254 0.292319 18 14 13
0.500911 -0.532837 0.100027 15 13 14
0.712171 -0.318067 -0.223917 25 22 20
0.049043 -0.550114 0.284440 13 10 9
0.510137 0.216109 -0.437063 232 191 149
-0.238337 0.505296 0.296233 209 166 144
-0.142715 0.396743 -0.013952 165 131 103
-0.345056 0.415520 0.252779 196 151 131
-0.324588 0.304380 0.126188 136 93 66
0.351997 -0.595911 0.205519 27 24 24
-0.177997 0.780058 0.046067 210 158 123
0.543416 -0.602684 0.064890 9 9 7
0.017193 -0.274559 0.131617 11 10 7
0.702844 -0.401590 -0.082864 25 22 20
-0.042458 -0.984606 0.096906 128 96 82
-0.231018 0.660257 0.300119 227 180 152
0.531492 -0.047188 -0.264970 24 20 19
0.680605 -0.508631 -0.055077 15 11 11
-0.163363 0.465437 0.252406 221 115 110
0.348452 -0.084158 -0.053948 13 12 10
-0.042266 -0.183827 0.085149 10 9 7
0.800714 -0.467151 -0.310604 29 24 18
-0.321704 -0.566176 0.211998 225 181 140
0.043338 -0.219379 0.091768 11 10 8
0.377608 0.107399 -0.267000 105 90 83
0.344927 -0.223627 0.048413 14 11 9
-0.067139 0.268235 -0.143119 227 187 145
-0.514867 0.947359 0.359166 229 183 157
-0.051441 -0.058939 0.027290 17 13 10
-0.154148 0.446044 -0.220003 190 146 107
-0.095866 0.199005 -0.083039 233 194 152
-0.740360 0.558199 0.112851 216 142 117
-0.373120 -0.365929 0.174197 242 202 159
-0.584454 0.549265 0.232621 206 161 136
-0.469496 1.132454 0.083866 68 55 45
-0.186460 0.168987 -0.014674 216 174 135
0.652431 -0.243610 -0.316055 23 18 16
-0.085262 0.313455 -0.136865 227 186 143
-0.515711 0.784460 0.390710 227 184 158
-0.176127 0.781441 0.129547 230 186 153
-0.461623 0.816345 0.391616 242 198 172
0.068294 -0.973290 0.224048 165 125 101
-0.120751 0.611827 -0.013834 202 160 128
0.612105 -0.173751 -0.287345 19 13 11
0.474557 -0.060784 -0.138763 13 11 9
-0.105535 0.265568 -0.083869 233 196 156
0.207744 -0.344786 0.145719 12 10 8
-0.184362 0.038197 -0.021054 223 175 134
-0.301742 -0.063712 -0.006248 227 182 142
-0.331354 0.167399 0.005772 188 147 110
-0.047778 -0.617369 0.256216 15 14 12
-0.263137 -0.499172 0.214876 14 9 6
-0.031710 0.240955 -0.218779 216 173 132
0.713528 -0.553740 -0.108384 11 9 8
-0.168801 0.692121 -0.035984 197 152 122
-0.055665 0.229034 -0.142092 230 191 150
-0.419054 0.609593 0.338610 171 128 104
-0.253869 0.264550 0.034684 168 136 107
-0.262263 0.837633 0.304243 241 195 173
-0.584948 0.664364 0.320439 189 148 126
-0.219234 0.299620 0.172536 159 116 93
0.559948 0.041301 -0.379064 233 191 148
-0.275325 0.911140 -0.123461 84 64 49
0.778365 -0.527944 -0.263227 48 46 47
-0.454462 -0.052540 -0.082077 206 158 121
-0.381094 -0.788699 0.196781 210 169 134
0.214775 0.111168 -0.198075 10 8 5
0.201373 -0.294277 0.115144 13 10 9
0.193392 -0.114598 -0.005792 12 11 9
-0.237440 0.912018 0.112484 214 174 145
0.064252 -0.735822 0.269826 14 14 14
-0.602451 1.020572 0.273417 58 43 23
-0.217084 -0.091139 0.066872 17 11 7
0.719952 -0.404838 -0.131061 28 23 23
-0.487146 -0.129274 -0.048549 10 7 5
-0.418143 0.186140 -0.035754 180 133 97
-0.369919 1.089889 0.024633 97 76 54
0.633750 -0.509163 0.008400 18 14 15
-0.318907 -0.242488 0.117399 8 6 5
0.426590 -0.676566 0.143273 9 8 8
-0.156291 0.087711 -0.033889 235 191 148
-0.487446 -0.455310 0.221059 231 193 150
-0.074350 0.305854 -0.302264 212 160 116
0.538486 -0.486186 0.083509 20 17 18
-0.573622 -0.632397 0.177517 177 129 93
-0.621132 -0.346914 0.144238 222 170 136
0.803303 -0.526441 -0.380834 36 27 18
-0.178445 0.598235 0.263768 203 146 125
-0.086815 0.328515 -0.270117 219 169 124
-0.624298 0.564051 0.210027 155 119 99
-0.091696 -0.042697 0.016786 243 191 153
0.180201 -0.809840 0.223744 20 14 14
0.054198 0.098115 -0.125617 236 187 148
-0.146341 -0.771776 0.151109 126 99 77
0.029004 -0.791391 0.217773 10 9 7
-0.397321 0.835741 0.378368 244 198 173
0.254494 -0.351709 0.139933 13 10 8
-0.275870 -0.552606 0.205328 198 152 111
-0.472235 0.479965 0.277288 191 142 116
0.428035 0.028748 -0.202441 11 10 8
0.353623 -0.283228 0.084628 14 10 9
0.647371 -0.047781 -0.429864 227 184 142
-0.492607 -0.109220 -0.065729 7 5 4
0.131178 -0.594260 0.297842 13 12 10
-0.357891 -0.570404 0.213683 227 185 144
-0.158123 -0.289699 0.156415 10 9 7
0.714780 -0.445311 -0.111297 21 18 16
-0.075972 0.404916 0.124899 207 160 134
0.608181 -0.261065 -0.011388 14 11 10
-0.281166 0.246195 0.030406 184 145 111
0.362035 -0.532050 0.181897 24 20 20
0.146021 -0.497093 0.267315 11 9 8
-0.116726 0.359060 -0.268831 209 160 118
0.306550 0.316670 -0.470431 225 178 136
-0.573110 0.479324 0.151554 188 138 113
-0.604496 -0.488991 0.193845 202 153 122
-0.755657 0.698036 0.190725 87 65 50
-0.569665 -0.272735 0.097750 239 188 149
0.061634 0.246703 -0.389075 35 30 29
0.481770 0.170732 -0.391953 238 198 155
-0.375902 -0.487380 0.207391 232 191 147
-0.231984 0.867422 -0.007764 176 139 115
0.230918 0.210667 -0.320222 12 11 7
-0.519584 -0.178593 -0.031965 8 7 5
0.760533 -0.302027 -0.381459 212 162 127
0.323611 -0.532145 0.211147 23 19 20
0.635279 -0.190183 -0.212329 17 11 10
0.038240 -0.591778 0.290678 15 11 10
-0.290738 -0.270037 0.138249 9 8 6
-0.413867 -0.965163 0.121376 149 113 81
0.635593 -0.552161 -0.013048 13 11 11
-0.304420 0.995372 0.214628 220 174 144
-0.167844 0.521296 -0.162081 218 172 132
0.657883 -0.445366 -0.004101 18 15 14
-0.637993 0.972508 0.298845 70 52 33
0.455130 -0.031602 -0.157341 13 12 10
0.657697 -0.376155 0.000001 21 16 14
0.233208 0.002489 -0.097901 12 10 8
-0.632816 0.894794 0.349897 144 107 84
0.061086 0.256612 -0.445398 29 27 28
-0.411599 1.115712 0.044476 98 78 63
-0.147146 -0.966293 0.151219 214 169 134
-0.274158 -0.778712 0.185652 216 175 140
-0.433720 -0.677633 0.216235 218 175 137
-0.112662 0.554184 -0.027699 174 138 109
0.675826 -0.257779 -0.132878 15 13 10
0.524047 0.014671 -0.323155 207 157 111
-0.137256 0.420865 -0.061653 205 166 132
-0.188309 -0.690127 0.165257 139 105 77
0.072432 0.259469 -0.469757 29 26 27
-0.251211 -0.966563 0.171765 216 168 131
0.132085 -0.704566 0.290096 14 11 10
-0.334543 1.053809 -0.011719 94 74 58
0.094600 -0.827714 0.211186 11 9 10
0.648325 -0.712566 -0.003882 10 9 7
-0.415890 -0.275187 0.131298 176 136 115
0.601317 0.138266 -0.495720 223 177 133
-0.251588 -0.410228 0.207766 13 9 7
-0.105986 0.357926 -0.230320 214 168 124
0.669131 -0.215256 -0.372417 184 139 107
0.266229 -0.378655 0.153645 13 11 10
0.172819 -0.096326 -0.012882 13 11 9
-0.433722 0.677835 0.379576 190 143 119
-0.113294 -0.012856 -0.011928 241 189 147
-0.469588 0.407137 0.191979 194 149 125
-0.787226 0.870906 0.220914 72 55 39
-0.432557 1.026462 0.290976 160 122 97
-0.454475 -0.123068 -0.024361 8 7 5
0.687278 -0.082082 -0.458488 223 176 136
-0.603752 -0.379361 0.179431 221 173 137
-0.456109 1.094905 0.191171 91 79 60
-0.194135 0.069022 -0.018995 221 174 135
-0.045620 -0.584757 0.263453 13 12 10
0.712682 -0.366719 -0.125116 26 23 18
-0.383518 0.599911 0.322599 212 161 132
-0.377365 0.329547 0.159636 174 133 108
0.495655 0.042119 -0.301139 219 171 126
-0.535995 0.913886 0.372358 232 187 159
0.609845 -0.726018 0.027110 9 8 6
-0.237712 -0.705189 0.175589 217 178 139
-0.123184 -0.229471 0.120706 9 8 5
-0.431707 -0.461923 0.208891 233 191 149
-0.208820 0.797925 -0.036709 184 133 108
-0.158020 0.734296 0.039413 197 152 121
0.335439 0.328480 -0.507651 226 180 139
-0.205382 0.152854 -0.009531 224 183 143
0.036704 -0.688295 0.282624 13 13 13
0.882376 -0.416289 -0.462629 223 171 136
0.698120 -0.132404 -0.440297 222 175 134
-0.553878 0.426858 0.098122 173 122 93
0.566575 -0.384538 0.072131 26 24 25
0.012287 -0.645078 0.281134 13 11 10
-0.721697 0.535100 0.100028 173 110 91
-0.297662 0.904538 0.293947 240 193 167
-0.111446 -0.935776 0.112061 171 134 108
-0.041738 -0.273807 0.140351 11 10 7
0.066345 -0.617625 0.298624 14 12 11
0.070255 -0.772076 0.246570 12 11 11
0.302706 0.325077 -0.511537 220 175 135
-0.235955 -0.121107 0.072799 10 7 5
-0.652559 -0.345354 0.104324 212 157 123
-0.169250 -0.127691 0.074477 11 10 7
-0.480751 -0.050692 -0.124327 220 170 131
-0.424413 -0.751804 0.203962 204 162 126
0.747190 -0.365623 -0.357778 153 119 96
0.530668 -0.351494 0.080287 19 16 16
-0.015206 -0.200679 0.089862 11 9 7
-0.638145 0.846458 0.355093 182 138 111
-0.005426 -0.757042 0.228966 10 6 6
0.101202 -0.774216 0.253053 11 11 9
0.034664 0.251403 -0.369388 36 28 26
-0.028978 -0.852245 0.143460 10 8 6
-0.334208 -0.857420 0.181939 209 166 130
-0.419753 0.145004 -0.064758 186 137 98
0.641212 -0.205547 -0.365213 163 124 93
-0.181632 0.719546 0.202487 239 185 154
-0.179439 0.194568 -0.011445 217 172 135
-0.137701 0.606861 -0.056423 182 141 108
0.694055 -0.517058 -0.082213 17 14 14
-0.184685 -0.999311 0.179725 217 165 131
-0.364074 -0.461276 0.203966 235 194 150
0.447190 0.137310 -0.353858 239 199 156
-0.323226 0.445984 0.279095 195 147 123
0.440361 0.091253 -0.299127 236 193 147
0.298888 -0.125865 -0.015771 12 9 7
-0.015649 -0.789432 0.202159 4 3 3
-0.058547 -0.464846 0.241101 12 8 7
-0.309422 0.559437 0.302121 226 175 149
-0.139522 0.725489 0.109981 224 173 138
-0.148560 -0.498237 0.230137 14 10 8
-0.144507 0.322211 -0.031393 230 192 155
-0.432244 1.125216 0.014369 91 73 59
0.460944 0.053883 -0.266668 233 188 143
-0.311473 1.027549 -0.005343 97 75 56
0.345250 0.254896 -0.390624 235 191 151
0.299477 -0.560775 0.238050 22 19 19
-0.291378 0.762241 0.332421 220 179 151
0.075794 0.173550 -0.220576 19 15 10
-0.086517 0.522183 0.065695 221 173 142
0.665613 0.043379 -0.510047 217 173 131
0.339580 0.320280 -0.473531 226 180 138
-0.162273 -0.918657 0.145083 214 169 135
-0.265657 -0.651552 0.188032 218 177 137
-0.131732 0.553178 0.195392 211 167 140
-0.574863 0.745283 0.371432 215 174 145
0.370777 -0.423749 0.146395 15 12 12
0.358302 0.287776 -0.423113 232 187 145
0.208942 0.042876 -0.126484 12 11 8
-0.042216 0.232669 -0.170882 222 182 142
-0.683980 0.864206 0.321033 154 120 96
-0.051310 -0.424253 0.226244 12 10 8
-0.239106 -0.534017 0.209403 20 16 14
0.171720 0.234479 -0.346424 8 8 4
0.028841 -0.307947 0.151718 12 9 8
-0.579819 0.614581 0.286927 199 160 135
-0.660471 -0.445482 0.136187 187 141 106
-0.214766 0.843747 0.241582 159 119 96
0.046821 -0.996843 0.234486 172 135 109
0.520228 0.158552 -0.416680 236 195 151
-0.639586 0.448938 0.087022 190 121 94
-0.155067 -0.038770 0.014281 241 187 147
-0.273808 -0.707645 0.191242 219 179 144
0.475903 0.213393 -0.405256 240 201 160
0.235644 -0.540511 0.265876 14 12 11
0.532153 0.244611 -0.550635 209 166 124
0.171175 -0.659526 0.295070 16 14 12
-0.396395 0.434664 0.257109 196 154 130
0.396521 0.324455 -0.486727 227 183 142
-0.302927 0.217573 0.021910 185 146 111
-0.598015 -0.456903 0.201087 210 163 130
0.602252 -0.169911 -0.148587 14 10 8
0.664408 -0.464707 -0.020828 20 17 16
-0.205417 -0.250622 0.130182 10 9 7
-0.119718 -0.103018 0.063402 14 10 8
-0.239323 -0.064405 0.019114 228 172 131
-0.473673 0.285614 0.002942 187 137 102
-0.541297 -0.510480 0.217897 216 172 131
-0.079753 -0.743936 0.194012 5 3 2
-0.424634 -0.034331 -0.064917 214 166 126
0.388784 -0.722778 0.166120 13 11 10
-0.187392 -0.733047 0.160189 176 136 105
-0.445044 -0.838615 0.167118 171 129 99
-0.187566 0.118323 -0.017730 232 190 147
-0.116615 0.461868 0.186142 229 184 156
-0.307217 -0.767628 0.193729 215 173 137
-0.100805 -0.779023 0.163136 10 6 5
0.256900 -0.092796 -0.031223 12 10 8
0.347864 -0.487527 0.177828 16 13 14
-0.701573 0.984481 0.239087 60 45 29
0.757949 -0.481547 -0.272649 33 27 29
0.784561 -0.180766 -0.531245 219 165 125
-0.740980 0.768513 0.252539 92 71 53
0.365245 0.093081 -0.232366 10 8 4
0.235259 -0.017607 -0.081839 13 11 8
-0.563530 0.640461 0.323660 189 152 128
0.432771 -0.114064 -0.059734 11 10 7
-0.498231 -0.307836 0.152141 241 197 156
0.271294 0.318740 -0.494184 221 176 141
-0.684356 0.421308 0.063027 160 97 73
-0.011394 -0.592135 0.275814 12 10 8
0.501744 -0.650391 0.092879 9 8 8
-0.142379 -0.715217 0.171784 4 3 1
0.458308 -0.089877 -0.096095 15 12 10
-0.293522 0.949473 -0.119683 69 55 40
0.472243 0.111957 -0.353861 237 194 150
-0.469326 1.087764 0.254893 64 47 27
-0.308326 0.988883 -0.088837 75 56 41
0.772025 -0.561656 -0.191183 10 9 7
-0.042091 -0.865613 0.125380 10 8 5
-0.431158 0.972137 0.331540 241 193 164
-0.413304 1.105432 0.149460 57 43 25
0.629239 -0.184142 -0.187252 15 11 9
0.567986 -0.527106 0.061039 14 12 11
0.413775 -0.723704 0.153114 10 9 7
-0.239149 -0.005521 -0.013734 226 182 141
-0.157527 0.674923 0.195004 242 187 158
0.303246 -0.287376 0.094471 14 11 10
0.245699 -0.677417 0.267536 12 11 9
-0.086507 0.332359 -0.207708 208 162 120
0.584319 0.165280 -0.494463 221 177 132
0.240265 0.230830 -0.362659 19 18 15
0.341487 0.128934 -0.264429 17 13 10
-0.690898 0.700418 0.274366 114 83 61
0.108673 -0.488912 0.264793 13 9 8
-0.616247 -0.551098 0.166681 175 126 92
-0.388863 1.086181 0.184589 123 100 76
-0.211377 0.024142 -0.017667 230 186 144
0.462826 0.075998 -0.302620 232 187 142
0.193581 -0.546748 0.280851 16 14 12
-0.720431 0.914103 0.266157 82 63 44
0.399631 0.128079 -0.310786 239 197 154
0.272574 -0.705373 0.241838 13 11 10
-0.634749 0.406529 0.491845 66 45 29
0.006180 -0.795420 0.206755 14 9 8
0.221356 -0.146050 0.008636 13 11 9
-0.409804 0.015008 -0.074102 198 153 110
-0.350809 0.434277 0.267310 201 156 135
-0.290661 -0.087513 0.038566 101 77 63
-0.269863 0.960391 0.192059 234 198 167
-0.384731 0.771864 0.384664 244 199 176
-0.123400 -0.252958 0.134326 11 9 8
-0.083638 -1.007902 0.183798 208 163 130
-0.243246 0.920666 0.081448 210 170 141
-0.059254 -0.691131 0.224941 5 4 2
-0.137914 0.455559 -0.145228 220 174 135
-0.132568 0.379501 -0.258684 207 160 118
-0.425330 -0.803085 0.188725 192 149 118
-0.018676 0.125946 -0.132190 230 185 144
0.721055 -0.392761 -0.316554 41 39 40
0.080315 -0.668801 0.296708 18 16 16
-0.113596 0.152622 -0.060136 229 186 148
-0.191187 0.775120 0.180548 183 133 103
-0.152139 0.487683 -0.144075 220 173 134
0.270885 0.271991 -0.410168 236 192 151
-0.497999 -0.578214 0.217906 221 176 135
0.620244 -0.552015 0.003703 14 11 10
-0.499746 -0.761141 0.176887 169 126 95
-0.471986 0.426810 0.212356 192 146 123
-0.507853 -0.414808 0.219249 236 196 155
-0.159375 0.705549 0.002824 199 155 124
-0.015981 -0.485123 0.252686 13 10 8
-0.156502 0.134423 -0.033528 229 187 145
0.140488 -0.924083 0.157464 33 25 23
0.028692 0.107677 -0.139211 237 188 148
-0.698369 0.744018 0.286950 134 102 80
0.710767 -0.359250 -0.302232 29 29 29
0.563063 -0.109375 -0.189024 20 14 14
-0.237921 0.786364 -0.147591 147 66 46
0.157891 0.108915 -0.174105 9 7 5
0.044220 0.056226 -0.086423 241 191 154
-0.584449 0.504513 0.218310 190 141 115
0.613691 -0.280685 -0.000729 14 11 10
-0.521842 0.628405 0.348331 193 149 129
0.540510 0.173536 -0.446244 230 190 146
-0.506412 0.966407 0.348954 199 156 131
-0.352319 0.843109 0.358635 247 202 178
0.118693 0.273028 -0.471916 28 24 28
-0.478213 0.639182 0.369427 188 141 123
-0.104097 0.580023 0.117966 226 182 155
-0.371767 -0.086697 -0.003502 160 126 106
0.371867 -0.395875 0.135894 14 12 11
-0.212225 0.789160 0.225363 183 137 112
-0.774233 0.930013 0.143967 104 80 60
-0.211576 -0.302159 0.161263 11 10 8
-0.672217 0.744906 0.311995 144 107 85
0.753629 -0.114564 -0.534368 217 168 128
0.148448 -0.538908 0.283944 13 10 9
0.557393 -0.213074 -0.022016 11 10 7
0.431413 -0.301303 0.081510 12 9 7
0.634523 0.064455 -0.481472 228 184 140
-0.456459 -0.591163 0.219268 227 183 142
-0.037491 0.184944 -0.146834 228 187 148
-0.307683 0.372134 0.226431 188 143 124
-0.500121 -0.826758 0.132518 149 113 79
-0.245241 0.647293 0.337901 248 197 175
-0.202211 0.301391 0.031126 109 75 52
-0.452927 0.360638 0.129852 166 123 96
-0.447769 0.307316 0.033577 191 139 104
0.082720 0.116720 -0.144347 21 18 13
-0.069599 -0.801021 0.168421 10 6 5
-0.056550 -0.903511 0.090269 8 4 3
0.795055 -0.398624 -0.367100 189 146 119
-0.259796 0.574958 0.338600 198 147 127
0.014467 -0.862095 0.158306 5 4 2
-0.423023 0.894163 0.371850 245 201 174
-0.456203 1.130706 0.051796 87 73 60
0.367683 -0.028191 -0.108596 10 9 6
0.386330 -0.352322 0.115037 13 10 9
0.642483 -0.581224 -0.023744 13 11 10
-0.327972 1.001496 0.244071 233 187 160
-0.298159 0.707987 0.322852 236 192 164
-0.349125 1.079195 0.062164 133 104 80
0.635719 -0.213006 -0.306952 22 16 16
-0.272759 0.906720 0.263868 235 189 161
-0.403565 -0.562541 0.216440 229 186 144
0.430958 -0.365029 0.111006 13 10 9
-0.377123 0.496386 0.305619 224 174 146
-0.456766 -0.265098 0.115608 239 195 157
0.010814 -0.885663 0.114011 11 7 6
-0.150420 -0.594702 0.210632 8 7 5
-0.210626 0.440952 0.262843 181 88 79
-0.110825 0.618973 0.057108 219 174 145
-0.000872 -0.459687 0.243873 13 9 8
0.306399 -0.049006 -0.072791 12 10 8
0.689169 -0.328664 -0.334730 32 30 26
-0.197015 0.752793 -0.047643 193 148 118
0.392425 0.000499 -0.149568 11 9 7
-0.686129 0.622996 0.200856 117 91 75
0.661331 -0.262485 -0.085348 12 10 8
0.042185 0.254255 -0.395549 35 31 29
-0.526001 0.326901 -0.006509 181 134 102
-0.104438 -0.183597 0.094025 11 10 8
0.219869 -0.815728 0.208019 19 15 15
0.734777 -0.433956 -0.320964 36 28 26
-0.760370 0.910281 0.231809 80 64 50
-0.370057 0.911993 0.343193 246 204 176
0.317753 0.157278 -0.302265 25 23 20
0.351409 0.046933 -0.178209 13 10 7
-0.201989 0.793708 -0.015548 202 157 126
0.556684 -0.228607 -0.005297 14 12 9
0.219841 -0.328470 0.132986 15 12 11
0.222432 -0.085961 -0.030449 11 10 8
-0.743325 0.653106 0.132081 68 49 36
-0.429434 0.630458 0.343531 64 46 34
0.108836 -0.910884 0.164405 17 15 12
-0.506974 0.764077 0.390704 226 183 158
-0.383552 1.097071 0.118711 131 100 77
0.232679 0.039519 -0.129861 9 8 5
-0.517211 1.103782 0.175525 60 52 33
-0.437961 0.993286 0.319225 232 182 156
-0.083314 0.405503 0.087643 161 117 94
-0.063829 0.301528 -0.258218 222 175 134
-0.241159 -0.082415 0.047364 218 175 148
0.612491 -0.580712 0.006435 14 12 11
-0.030636 -0.103945 0.039877 14 10 9
-0.417518 -0.232556 0.108737 16 14 11
0.570751 0.151170 -0.464065 228 186 141
0.346341 -0.109989 -0.033807 14 11 9
-0.122778 0.662148 0.067159 208 162 132
0.684675 -0.485206 -0.056530 26 21 22
-0.205661 -0.406390 0.208362 13 11 8
-0.087286 -0.207179 0.104453 11 10 8
0.109717 -0.072079 -0.015085 14 10 8
0.415882 -0.594083 0.149813 11 10 10
-0.354038 1.069041 -0.038220 81 65 49
0.464495 -0.169738 -0.022275 14 11 9
0.571252 0.069251 -0.411008 233 190 147
0.732212 -0.411068 -0.361690 35 25 22
-0.685556 0.522092 0.082557 198 152 126
-0.088342 0.495433 0.027089 186 145 118
-0.536015 0.459013 0.173741 186 135 111
-0.207135 0.613701 0.355436 246 195 174
-0.393609 0.795001 0.383381 245 200 177
-0.504682 1.067430 0.253563 76 62 42
-0.262922 0.887024 0.268051 236 189 162
-0.190307 0.494267 0.287383 207 118 108
0.436640 0.106029 -0.315582 238 195 152
0.719318 -0.488356 -0.117565 19 14 16
-0.528103 -0.252911 0.093194 243 195 156
0.399065 0.145060 -0.326357 241 202 159
-0.149946 -0.073154 0.049730 234 188 160
-0.434865 0.778858 0.393466 244 200 176
-0.238177 0.863679 -0.078435 121 89 66
-0.131821 0.280673 -0.047730 233 195 157
0.486580 -0.354547 0.094504 14 12 12
0.509975 -0.371475 0.092501 20 16 17
-0.576600 0.676389 0.340247 194 156 132
0.060974 -0.204715 0.079323 11 9 8
0.660166 -0.620161 -0.039487 10 9 8
-0.573096 -0.499618 0.210458 211 171 136
-0.705780 0.852328 0.310401 150 117 92
0.618514 -0.096187 -0.368846 216 169 128
-0.317448 1.058492 0.036319 112 84 63
0.517115 -0.012352 -0.262679 25 20 14
0.117017 -0.548287 0.288510 14 11 10
-0.297217 1.016781 0.122894 207 166 142
-0.113352 0.638127 0.107920 221 175 149
0.307100 0.085641 -0.199817 10 9 6
0.475591 -0.609321 0.107306 9 8 8
-0.698783 0.929703 0.285364 70 54 39
0.232286 -0.264535 0.090286 13 11 9
0.193134 -0.502986 0.260934 14 12 10
-0.378348 -0.852878 0.180044 198 158 122
-0.513756 0.467313 0.215517 177 131 107
-0.209591 0.774241 -0.057005 182 132 105
-0.288040 -0.175206 0.078792 9 8 6
-0.147757 0.333404 0.206744 171 120 101
-0.175335 -0.051066 0.023498 236 183 143
-0.653942 -0.405884 0.140089 198 148 112
-0.280146 -0.965556 0.169967 210 161 123
-0.257504 -0.297521 0.156400 10 9 7
0.487951 -0.091132 -0.114322 11 9 6
-0.051528 -0.235879 0.118215 11 10 8
0.483708 -0.290652 0.067354 15 11 10
-0.309127 -0.289036 0.150709 10 9 6
0.660750 -0.169208 -0.374980 205 159 122
-0.309361 -0.584417 0.208967 221 179 138
-0.557778 0.933756 0.362417 190 143 118
0.505650 -0.201646 -0.007319 13 9 8
-0.224674 0.849287 -0.124664 229 174 146
-0.579228 -0.696276 0.141767 161 118 86
0.349654 -0.629278 0.209907 25 20 22
-0.437149 -0.927347 0.122066 146 107 80
0.619660 -0.211435 -0.363360 55 37 21
-0.478202 0.387155 0.153471 187 140 113
-0.636280 -0.373289 0.148440 213 160 126
-0.106193 0.535947 0.150110 232 189 160
-0.649388 -0.462056 0.154182 186 135 106
-0.694219 0.551597 0.105950 105 34 20
0.461757 0.036756 -0.244114 27 21 17
-0.677059 0.976439 0.268633 71 53 36
0.552242 -0.441880 0.079924 24 22 22
-0.051793 -0.640011 0.248230 15 15 13
-0.184755 0.431323 0.257993 169 95 80
0.780639 -0.547610 -0.310087 42 40 41
-0.265312 0.684352 0.302444 220 169 138
-0.604958 -0.615460 0.149315 170 126 91
0.036399 0.075919 -0.104803 237 187 144
0.310663 0.042306 -0.155767 11 9 6
-0.250573 0.724029 0.239908 136 88 72
-0.201950 0.781157 -0.184142 230 165 139
-0.292860 -0.993375 0.163793 201 152 115
-0.442251 0.280326 0.020046 192 143 106
-0.555906 -0.764796 0.124601 151 112 79
0.455595 -0.697024 0.127574 9 8 7
-0.039653 -0.552859 0.264033 13 10 8
0.377921 0.026949 -0.170630 13 11 8
0.474125 0.300170 -0.506336 218 174 134
0.271784 -0.559732 0.255961 13 11 11
0.465354 -0.506276 0.120580 19 18 16
-0.055495 -0.147460 0.067713 11 9 7
0.243305 0.172662 -0.275687 10 9 5
-0.536341 -0.275738 0.115953 239 192 153
0.256573 -0.111503 -0.018727 14 13 11
0.900542 -0.414675 -0.480984 221 169 131
-0.201589 0.723868 -0.141403 201 132 105
0.473237 0.298432 -0.536831 215 171 130
0.794691 -0.316848 -0.406616 221 169 132
-0.144316 -0.932266 0.134676 208 164 131
-0.448791 -0.544574 0.218682 227 185 144
-0.324957 0.074630 -0.027115 185 141 104
-0.406237 0.378376 0.203697 197 152 129
0.112274 0.154153 -0.203800 13 10 7
0.268944 0.245875 -0.382092 235 191 151
-0.123561 0.566421 -0.044342 174 139 110
0.720651 -0.234765 -0.396533 215 164 128
0.069256 -0.264651 0.116255 10 9 7
-0.338388 -0.234009 0.109556 9 8 6
0.679581 -0.243336 -0.177010 17 11 10
0.093591 -0.347137 0.169608 12 10 8
0.373361 0.327874 -0.496311 226 181 141
-0.426983 0.252118 0.010676 187 141 106
0.453097 -0.445153 0.122468 15 12 12
0.753374 -0.583182 -0.146786 9 8 6
0.728386 -0.110852 -0.499882 219 171 131
0.824430 -0.520085 -0.381871 121 98 80
-0.144616 -0.533514 0.226483 14 9 8
-0.381120 -0.911470 0.179410 178 139 106
-0.258710 -0.832285 0.177668 216 173 139
0.636560 -0.466425 0.015255 17 15 14
-0.286265 -0.624016 0.199131 217 173 134
0.541712 -0.009788 -0.330277 194 145 101
0.152383 0.215885 -0.321336 12 10 7
-0.364977 0.686368 0.341555 129 84 61
0.423704 -0.149685 -0.024782 12 9 7
-0.252461 -0.255308 0.129487 8 6 4
0.555858 -0.553877 0.056702 17 15 14
-0.473255 -0.233480 0.095556 177 140 119
-0.452840 0.011906 -0.125648 217 166 121
-0.309183 0.348718 0.205569 182 139 120
0.288008 -0.010450 -0.099979 12 10 8
-0.296923 -0.384958 0.198266 21 16 11
-0.134327 0.302859 -0.047254 233 194 156
0.358769 -0.051982 -0.084437 11 9 7
0.381162 -0.483441 0.158856 15 13 14
-0.232735 0.540927 0.308110 102 61 52
-0.399621 0.102752 -0.074122 195 147 107
-0.206605 0.861084 0.163666 215 174 149
0.286396 -0.272779 0.087860 15 13 11
-0.298873 -0.249422 0.124046 9 8 5
-0.391839 0.893068 0.360638 248 203 175
0.533408 -0.573778 0.072184 11 11 10
-0.217925 0.203691 0.004949 203 163 125
-0.523281 -0.557440 0.216780 217 172 132
-0.015871 0.217834 -0.212170 221 179 140
0.015116 -0.200312 0.084519 12 10 9
0.448817 -0.569511 0.126440 14 13 12
-0.231198 -1.024548 0.180984 204 151 115
-0.656417 0.726669 0.317709 166 129 108
0.058072 0.213082 -0.276066 21 13 9
-0.029541 -0.146218 0.061993 14 12 10
0.772387 -0.385177 -0.357884 170 131 107
0.503340 0.048919 -0.323356 227 180 132
0.256667 -0.495250 0.230911 13 10 9
0.150028 0.159009 -0.227499 13 10 8
0.477396 -0.487596 0.113544 22 18 17
0.147465 -0.438812 0.229294 13 9 8
-0.239250 0.889221 0.234172 233 188 161
-0.236090 0.847363 -0.153533 164 88 60
-0.588409 0.454767 0.115435 203 157 133
0.139238 -0.277099 0.112354 13 11 10
-0.050742 -0.009067 -0.035790 237 186 140
0.220854 -0.866750 0.178321 23 17 17
0.160494 -0.217183 0.069544 11 9 8
0.699797 -0.316380 -0.123667 21 19 16
0.040324 -0.325461 0.161642 12 10 9
-0.111754 -0.990036 0.174443 215 166 137
0.410017 -0.236857 0.047939 15 12 10
-0.203941 0.754642 0.208823 183 141 132
-0.343289 0.198551 0.013614 193 151 116
0.539321 -0.066852 -0.217378 21 18 17
-0.133702 0.344726 -0.059615 233 193 153
-0.674537 0.656664 0.253334 144 116 95
-0.650558 0.909575 0.332480 112 81 63
0.257430 -0.787466 0.209324 12 8 7
-0.224205 -0.754474 0.171908 217 173 138
0.018106 -0.944755 0.107041 39 37 22
-0.136711 0.671755 0.026515 203 161 127
0.471022 -0.219637 0.020272 15 13 11
0.119091 -0.318434 0.143404 12 10 9
-0.112717 0.364624 0.196845 190 131 111
0.690949 -0.173742 -0.402086 220 171 134
0.764174 -0.508926 -0.288580 53 49 50
0.633748 -0.378200 0.025839 21 18 16
0.694031 -0.324502 -0.097643 22 18 15
0.262298 -0.314889 0.117639 14 11 10
-0.060911 -0.533766 0.256450 13 11 10
0.702893 -0.322215 -0.273009 28 25 22
0.069873 -0.553053 0.287941 15 12 10
-0.321268 0.410531 0.255055 198 153 132
-0.737483 0.783349 0.265659 85 64 45
-0.065713 0.166871 -0.104668 230 189 147
0.442918 0.252346 -0.406034 243 202 164
-0.442360 0.394610 0.199909 196 151 129
-0.350716 -0.991558 0.147594 191 143 106
0.287067 0.223515 -0.361061 234 192 150
0.437974 -0.651943 0.133747 12 11 11
-0.051678 0.204596 -0.136947 229 189 148
-0.354124 0.896952 0.340577 247 204 177
-0.108426 0.441816 0.183860 231 181 153
-0.253105 0.935275 0.029242 182 146 124
-0.217201 0.855199 0.058471 213 168 139
-0.033928 0.263499 -0.260109 225 182 141
-0.150857 -0.397090 0.211199 12 9 7
-0.191374 -0.604732 0.191473 10 6 5
0.545927 -0.071144 -0.248480 20 17 17
-0.194022 0.315291 0.199888 171 126 107
-0.505271 0.726491 0.389093 225 183 159
0.415905 0.324940 -0.530141 216 171 131
0.271465 -0.456320 0.201259 13 11 10
0.298409 -0.663859 0.239735 12 8 7
-0.259117 0.925835 -0.014524 148 112 88
0.078700 -0.518813 0.276536 14 12 11
-0.071538 -0.083930 0.046261 19 15 12
-0.488782 -0.684655 0.207731 202 156 120
-0.209930 -0.363067 0.191901 12 10 7
-0.612782 -0.328381 0.134715 228 178 143
-0.178843 0.731248 -0.021195 197 152 122
0.572085 -0.114948 -0.318603 24 17 11
-0.057209 -0.981304 0.158663 194 150 123
0.271086 -0.232516 0.061210 12 11 9
0.732042 -0.412436 -0.178262 29 25 22
0.802127 -0.271639 -0.477673 222 168 131
0.329197 -0.503628 0.194720 18 16 16
-0.214214 0.758528 -0.168259 210 139 110
0.740268 -0.440198 -0.203939 30 26 25
-0.447017 -0.195179 0.061121 11 8 5
0.533408 -0.308780 0.063072 15 12 11
-0.348778 0.392076 0.232699 190 145 125
-0.609553 0.648394 0.292826 192 152 127
0.077846 -0.592710 0.296281 13 10 9
-0.018378 -0.707791 0.246867 10 9 7
0.407703 -0.030058 -0.125453 12 11 8
-0.120267 0.659465 0.136170 227 175 148
-0.736205 0.933375 0.239734 86 69 53
0.076038 -0.370291 0.188368 12 9 7
-0.112370 0.620184 0.123202 224 175 150
-0.298262 -0.109776 0.054541 10 8 6
0.397591 0.077385 -0.233297 17 14 11
0.055896 -0.359162 0.183137 13 10 9
-0.367609 1.048713 0.240246 161 123 99
-0.744673 0.859916 0.271909 117 90 68
0.561610 -0.649547 0.051718 10 9 8
-0.242452 -0.033419 -0.009034 221 173 136
-0.672079 0.830123 0.336044 171 132 110
0.256178 -0.413688 0.179404 14 11 10
0.380208 -0.135441 -0.021972 12 9 8
-0.093058 -0.726692 0.194505 5 3 3
-0.462935 -0.092997 -0.051258 12 9 7
0.702633 -0.427185 -0.080375 25 21 20
-0.329763 -1.005234 0.151969 184 136 98
-0.442333 0.423336 0.227255 191 146 124
0.291565 -0.726948 0.225988 18 14 14
-0.433581 1.124706 0.047091 109 93 77
0.718609 -0.069050 -0.514332 217 168 128
-0.333403 -0.271666 0.139392 9 8 6
-0.228951 0.050031 -0.015291 229 186 146
-0.328753 -0.090813 0.030377 17 10 6
-0.167336 -0.964555 0.155214 210 164 130
-0.153287 0.747237 0.078921 211 162 124
0.196941 0.096728 -0.177038 13 11 7
-0.148076 0.712944 0.042448 190 147 119
-0.775445 0.728463 0.192296 77 56 42
-0.030610 -0.255779 0.127224 11 9 8
-0.554220 0.370717 0.006599 166 127 102
0.083887 -0.931222 0.144149 24 20 17
-0.002379 0.247039 -0.296854 227 182 140
0.135220 0.258283 -0.407199 27 23 25
-0.179111 0.474570 0.266929 129 34 30
-0.173654 -0.665507 0.174680 5 3 2
-0.478192 0.679141 0.389085 134 93 69
-0.092571 0.118553 -0.074262 230 188 149
-0.161619 -0.426569 0.220899 14 10 8
0.223642 -0.182742 0.032897 11 9 8
-0.386822 -0.964745 0.140810 161 122 91
0.497771 0.011536 -0.248396 50 37 30
-0.309851 1.032280 0.028837 115 83 61
-0.063024 -0.955364 0.071236 59 43 35
0.168029 -0.028170 -0.058713 12 10 7
0.321655 0.186473 -0.332613 238 200 159
-0.121654 0.068993 -0.053768 232 187 144
0.707251 -0.295204 -0.193572 19 17 20
-0.687172 0.779673 0.313396 152 115 89
-0.080797 -0.350305 0.190265 11 9 7
-0.119984 0.334539 0.177484 143 96 76
0.551139 0.198312 -0.475920 222 179 134
-0.579986 -0.297885 0.122405 237 187 149
0.391059 -0.065136 -0.084424 12 10 7
0.145617 -0.370981 0.178855 13 9 8
0.284067 0.158267 -0.271814 18 16 13
-0.772682 0.759869 0.218618 85 61 45
-0.440131 -0.234143 0.108831 20 16 10
0.664054 0.020291 -0.497886 219 176 134
0.767481 -0.325655 -0.373844 204 157 124
-0.115602 -0.812767 0.138453 50 33 24
-0.477998 0.932935 0.364152 244 199 170
0.201896 0.293893 -0.472665 216 170 138
-0.598976 1.003489 0.296042 63 47 32
0.661908 -0.085980 -0.420345 227 184 142
-0.139369 -0.888117 0.126378 181 142 115
0.239262 0.085886 -0.176751 10 9 6
-0.411389 0.692072 0.378008 157 118 97
-0.271920 0.414602 0.256811 216 173 146
0.550054 -0.181328 -0.055798 15 11 11
0.044565 -0.113249 0.027387 13 9 8
0.816748 -0.227650 -0.536598 222 165 126
0.032761 -0.519964 0.272140 13 9 8
-0.566150 0.863911 0.380481 224 175 147
0.679201 -0.650347 -0.050409 8 7 5
-0.628723 0.808986 0.358647 207 162 136
0.704518 -0.212256 -0.394684 212 162 125
-0.397463 -0.487855 0.208308 232 191 148
-0.096227 0.355258 -0.160322 217 173 131
-0.262957 0.982172 0.064371 158 121 98
0.490918 0.254999 -0.446371 232 190 148
0.030188 -0.443140 0.237275 14 10 9
-0.386389 -0.115504 0.016061 7 3 2
-0.572108 1.048838 0.257577 61 43 23
-0.596978 0.706280 0.346463 194 151 127
0.299843 -0.377081 0.144265 13 11 9
0.012288 -0.680890 0.275140 8 8 8
-0.409116 -0.150158 0.023868 6 4 3
-0.002101 -0.417876 0.222551 12 9 8
-0.195018 -0.647520 0.173418 105 74 47
-0.573278 0.890545 0.374971 215 169 143
-0.318174 1.016358 -0.050817 62 46 29
-0.190658 -0.013348 -0.010990 239 192 151
-0.185882 -0.191364 0.099327 9 8 6
-0.171668 0.708846 -0.175403 235 175 145
-0.324607 0.046465 -0.033223 187 143 105
-0.634503 0.724035 0.329959 174 134 112
-0.165834 0.514172 0.268599 231 156 140
-0.507867 -0.448947 0.223062 231 192 150
-0.446353 -0.477719 0.214140 231 190 147
-0.606292 0.431532 0.099147 208 153 131
-0.509865 0.546080 0.297143 203 157 128
-0.199799 0.746111 -0.086226 237 197 164
-0.096508 0.374731 0.184582 199 139 117
-0.309582 -0.333167 0.177590 16 14 10
0.440489 0.314867 -0.498376 224 180 140
0.654700 -0.408321 0.006175 22 20 19
-0.272424 0.791877 0.324108 207 163 140
-0.146642 0.648348 -0.035960 196 155 123
-0.223585 0.327673 0.208907 192 150 128
-0.148702 0.213618 -0.026932 224 182 146
-0.242427 0.742861 0.235811 94 74 61
0.186531 0.134332 -0.211437 10 9 6
-0.164365 0.661649 -0.069161 190 145 115
-0.277532 0.754394 0.306401 187 135 105
0.402487 -0.043268 -0.109339 12 11 8
-0.089706 -0.112866 0.058971 12 9 6
-0.702371 0.622609 0.197845 86 63 45
0.069727 0.193513 -0.250130 18 15 9
0.279640 0.179140 -0.303734 18 15 11
-0.045138 -0.506693 0.254528 13 10 9
-0.369654 -0.257298 0.130353 10 8 5
-0.306608 -0.932100 0.171785 207 160 121
0.754118 -0.483508 -0.255707 18 14 15
0.044009 -0.182737 0.068442 11 10 8
-0.365560 0.078639 -0.049768 191 145 106
0.681091 -0.251037 -0.370899 170 129 101
-0.436347 -0.169879 0.030226 6 4 3
0.228688 -0.597312 0.283447 14 13 11
-0.557521 -0.733410 0.146013 159 115 80
0.015792 -0.821644 0.188819 16 13 12
-0.243581 -0.632848 0.178820 203 159 119
-0.410982 1.108442 0.121150 97 75 54
-0.254977 0.903698 -0.056728 117 90 70
-0.350145 0.798782 0.368620 243 199 174
-0.431412 -0.566195 0.218308 227 185 144
-0.222172 -1.000261 0.178517 213 162 126
-0.283186 -0.023982 -0.018499 218 171 131
-0.129000 0.575872 0.191519 233 189 165
0.000323 -0.044380 0.002527 15 12 8
-0.659744 0.782987 0.335328 175 131 107
-0.519758 0.990576 0.333769 90 66 44
-0.237752 0.875379 -0.161777 228 162 131
-0.278172 0.843598 0.316909 242 196 172
0.279715 0.024735 -0.128177 12 11 8
-0.503526 -0.654288 0.209460 204 158 122
-0.016540 -0.282461 0.141701 11 9 7
-0.086777 -0.157013 0.078499 12 11 8
-0.303854 0.686529 0.322986 214 168 136
-0.350093 1.074764 0.040314 128 97 76
-0.499120 -0.491255 0.221970 226 184 143
0.500496 0.028240 -0.276115 229 184 140
-0.098940 -0.140739 0.072963 11 10 8
-0.382283 -0.588752 0.215974 227 184 142
0.355176 0.157575 -0.318519 241 203 161
-0.353980 -0.790170 0.193874 211 169 134
